# .PCD v0.7 - Point Cloud Data file format
VERSION 0.7
FIELDS x y z intensity ring
SIZE 4 4 4 4 2
TYPE F F F F U
COUNT 1 1 1 1 1
WIDTH 1250
HEIGHT 1
VIEWPOINT 0 0 0 1 0 0 0
POINTS 1250
DATA ascii
0.77045989 -2.7669322 -0.4549115 6 3
1.198429 -4.3067961 0.54889959 42 11
0.77061927 -2.7712483 -0.3531774 5 4
1.186307 -4.2690043 0.70176506 26 12
0.44489568 -1.6009867 -0.14537577 11 5
1.1961478 -4.3073297 0.86894423 10 13
0.41391227 -1.491508 -0.081120737 1 6
1.1951858 -4.309701 1.0325253 52 14
0.45929077 -1.6572722 -0.030018138 3 7
1.194165 -4.3118625 1.1988499 45 15
0.51077354 -1.8530878 -0.51504993 8 0
0.45881119 -1.6657031 0.030157758 43 8
0.58026695 -2.108083 -0.50479019 7 1
1.1876152 -4.3174939 0.23467445 5 9
0.69252259 -2.5176187 -0.50755197 6 2
1.1908325 -4.332149 0.3930724 13 10
0.76288927 -2.7772238 -0.45616296 6 3
1.182337 -4.3071251 0.54841208 50 11
0.75568944 -2.7547774 -0.35073999 4 4
1.1604315 -4.2331128 0.69519484 6 12
0.4424651 -1.6140589 -0.14642164 12 5
1.1790301 -4.3039041 0.86741769 33 13
0.41397694 -1.5122075 -0.082167462 1 6
1.179621 -4.3119674 1.0320754 34 14
0.45192116 -1.6530786 -0.029913425 5 7
1.1780876 -4.3122773 1.1978146 45 15
0.50278139 -1.8492669 -0.51349699 8 0
0.45561552 -1.6769433 0.030332282 41 8
0.57698983 -2.1251407 -0.50838935 6 1
1.1782893 -4.3428164 0.23582584 26 9
0.68167359 -2.5124419 -0.50602549 6 2
1.1762245 -4.338202 0.39324668 7 10
0.76300591 -2.8160961 -0.46210748 7 3
1.1683327 -4.3150582 0.54889959 42 11
0.74451345 -2.7516503 -0.35000879 5 4
1.1404924 -4.2180686 0.69206619 4 12
0.4368284 -1.6155934 -0.14642164 12 5
1.1563179 -4.2795644 0.8616935 6 13
0.41181961 -1.5252126 -0.082795486 1 6
1.1605004 -4.3010068 1.0284761 57 14
0.44406569 -1.6469231 -0.029773805 5 7
1.1605151 -4.3070359 1.1952263 42 15
0.49232051 -1.8360832 -0.5093559 8 0
0.44820639 -1.6727288 0.030227568 43 8
0.57057601 -2.1309071 -0.50928921 6 1
1.1631231 -4.3469028 0.23582584 28 9
0.67188466 -2.511013 -0.50526226 5 2
1.1605599 -4.3403568 0.3930724 4 10
0.80620378 -3.0172184 -0.49464583 7 3
1.1532636 -4.3191099 0.54889959 42 11
0.73951 -2.7714939 -0.35220242 4 4
1.1277968 -4.2296586 0.69331765 6 12
0.43015939 -1.6132581 -0.14607303 12 5
1.1312628 -4.2456331 0.85406113 6 13
0.40340984 -1.5150608 -0.082167462 1 6
1.1454804 -4.3050318 1.0284761 30 14
0.43831411 -1.6484632 -0.029773805 6 7
1.1444814 -4.3073273 1.1941911 47 15
0.48689619 -1.8415258 -0.51039118 8 0
0.44389713 -1.6800833 0.030332282 41 8
0.56164205 -2.1272333 -0.50793946 6 1
1.1489615 -4.3547993 0.23603518 31 9
0.66311544 -2.5133431 -0.50526226 5 2
0.47035137 -1.7839899 0.16141243 3 10
0.80120307 -3.0410264 -0.49808741 7 3
1.1376745 -4.3211894 0.54865587 38 11
0.72932607 -2.7721388 -0.35195872 5 4
1.1170442 -4.2488532 0.69582063 4 12
0.42553881 -1.6186037 -0.14642164 12 5
1.1149396 -4.2438598 0.85291624 7 13
0.40116155 -1.5280505 -0.082795486 1 6
0.43610689 -1.6635234 -0.030018138 8 7
1.1255224 -4.2963457 1.19005 40 15
0.48143938 -1.846953 -0.51142645 8 0
0.4365176 -1.6758171 0.030227568 37 8
0.55126804 -2.1178651 -0.50524008 7 1
1.1342561 -4.3607163 0.23613985 36 9
0.65433812 -2.5156424 -0.50526226 5 2
0.45660299 -1.7566962 0.15879777 3 10
0.79306632 -3.053364 -0.49965176 7 3
1.1190927 -4.3116846 0.54694968 48 11
0.72163844 -2.7823536 -0.35293365 5 4
1.1160823 -4.3062682 0.7045809 9 12
0.42088574 -1.6239367 -0.14677027 12 5
1.1020877 -4.2553282 0.85444272 3 13
0.39582539 -1.5294415 -0.082795486 1 6
1.1051512 -4.2733035 1.0190283 4 14
0.43179864 -1.6708438 -0.030122854 6 7
1.1066546 -4.2852845 1.1859089 30 15
0.47643182 -1.8542354 -0.51297939 9 0
0.43364924 -1.6889518 0.030436996 31 8
0.5438717 -2.1197765 -0.50524008 6 1
1.1160517 -4.3530402 0.23551181 38 9
0.64360279 -2.510304 -0.50373578 5 2
0.45046836 -1.7582793 0.15879777 3 10
0.78191286 -3.0542002 -0.49933887 7 3
1.1040353 -4.3155646 0.54694968 48 11
0.71782196 -2.8079348 -0.3558585 6 4
1.1034887 -4.3197074 0.70614529 35 12
0.41768035 -1.6350479 -0.14764182 11 5
1.1003377 -4.3105097 0.86474639 12 13
0.4033193 -1.5811315 -0.085516959 1 6
1.0849336 -4.2563634 1.0140793 3 14
0.42744437 -1.6781543 -0.030227568 3 7
1.0874001 -4.2722716 1.1812501 14 15
0.46900791 -1.8521416 -0.51194406 9 0
0.42627937 -1.6846395 0.030332282 29 8
0.53694689 -2.1235514 -0.50568998 7 1
1.0988928 -4.349164 0.23509313 37 9
0.63387436 -2.5087285 -0.50297254 5 2
0.44286463 -1.7540457 0.15827483 3 10
0.77173048 -3.0588262 -0.49965176 7 3
1.0884794 -4.3174667 0.5467059 52 11
0.71141028 -2.8238981 -0.35756469 7 4
1.0884038 -4.3235331 0.70614529 52 12
0.41245696 -1.638428 -0.14781614 12 5
1.0867213 -4.3200364 0.86589122 47 13
0.39779764 -1.5825297 -0.085516959 1 6
1.065322 -4.2412243 1.0095804 17 14
0.42645204 -1.6990315 -0.030576617 3 7
1.070601 -4.2685461 1.1791797 10 15
0.46020141 -1.8443956 -0.5093559 9 0
0.41797739 -1.6764157 0.030157758 32 8
0.53047341 -2.1291947 -0.50658977 6 1
1.0846696 -4.3568501 0.23530249 37 9
0.62416476 -2.5071158 -0.50220931 5 2
0.43289137 -1.7401133 0.15688033 2 10
0.76247764 -3.0672526 -0.50059032 7 3
1.0724449 -4.3173876 0.54621845 52 11
0.71637374 -2.8860893 -0.36512056 3 4
1.0704513 -4.3158021 0.70426804 63 12
0.40673503 -1.6398578 -0.14781614 12 5
1.0659674 -4.3009367 0.86131191 20 13
0.39227128 -1.5839086 -0.085516959 1 6
1.051447 -4.2487006 1.0104802 21 14
0.41955855 -1.6966273 -0.030506806 3 7
1.0543046 -4.2666306 1.1776267 10 15
0.45514405 -1.8516189 -0.51090884 9 0
0.41069221 -1.6720386 0.030053046 37 8
0.52396661 -2.1348186 -0.50748956 6 1
1.053077 -4.2905941 0.2315343 10 9
0.61868286 -2.5226264 -0.50488061 5 2
0.43060869 -1.7570946 0.15827483 1 10
0.7489475 -3.0583832 -0.49871314 8 3
1.0559522 -4.3153205 0.54548723 48 11
0.70535201 -2.8847158 -0.36463311 3 4
1.0551956 -4.3154898 0.70364231 59 12
0.39911696 -1.6335256 -0.1471189 12 5
1.0490856 -4.2970018 0.85978532 12 13
0.38673979 -1.5852683 -0.085516959 1 6
1.0527641 -4.3186102 1.0262268 51 14
0.41487741 -1.7018949 -0.030576617 3 7
1.0410644 -4.2738576 1.1786621 10 15
0.44913247 -1.8550739 -0.51142645 8 0
0.41643849 -1.7200365 0.030890759 57 8
0.514135 -2.1251798 -0.50479019 6 1
0.61033469 -2.526679 -0.50526226 5 2
1.0499614 -4.3499851 0.39150357 1 10
0.7369473 -3.053169 -0.49746165 7 3
1.0402404 -4.3130088 0.544756 52 11
0.69578195 -2.8870392 -0.36463311 3 4
1.0405877 -4.3210678 0.70395517 67 12
0.39620918 -1.6465313 -0.14816476 12 5
1.0366677 -4.3080926 0.86131191 30 13
0.38148084 -1.586542 -0.085516959 1 6
1.0370713 -4.3163929 1.024877 42 14
0.41266868 -1.7188883 -0.030855855 2 7
1.025238 -4.2737083 1.1776267 10 15
0.44342661 -1.8584322 -0.51194406 8 0
0.41553327 -1.7428764 0.031274714 78 8
0.50626218 -2.1250658 -0.50434029 6 1
0.60013384 -2.5210493 -0.50373578 5 2
1.0327646 -4.3418131 0.39045769 2 10
0.72628552 -3.055723 -0.49746165 7 3
1.023802 -4.3108191 0.54402483 48 11
0.68386662 -2.8817246 -0.36365816 3 4
1.0259542 -4.3265958 0.70426804 81 12
0.39229673 -1.6556593 -0.148862 12 5
1.0216233 -4.3116851 0.86131191 40 13
0.37594041 -1.5878639 -0.085516959 1 6
1.0193065 -4.3086085 1.0221776 38 14
0.4011457 -1.6969656 -0.030436996 2 7
1.0076491 -4.2659802 1.1745209 9 15
0.43572918 -1.8562835 -0.51090884 8 0
0.41310266 -1.7598906 0.03155395 67 8
0.50017643 -2.1325116 -0.50568998 6 1
0.4060612 -1.7326108 0.09326268 4 9
0.58820379 -2.5117629 -0.50144607 5 2
1.0168436 -4.3455691 0.39045769 6 10
0.71687979 -3.0660586 -0.49871314 7 3
1.0096526 -4.318233 0.54451227 50 11
0.67651325 -2.8956921 -0.36512056 3 4
1.0090486 -4.3224568 0.70301658 81 12
0.38696775 -1.6589589 -0.14903632 11 5
1.0040309 -4.3077517 0.85978532 38 13
0.37011808 -1.5892311 -0.085516959 1 6
1.0004154 -4.2990294 1.0190283 8 14
0.39521971 -1.6983554 -0.030436996 2 7
0.99362731 -4.2732348 1.1755562 9 15
0.42750746 -1.8502641 -0.50883824 8 0
0.40440041 -1.7516507 0.031379428 48 8
0.49191889 -2.1324317 -0.50524008 6 1
0.39597043 -1.7165023 0.092320636 5 9
0.58119637 -2.5214531 -0.50297254 5 2
0.99809152 -4.33356 0.38906324 12 10
0.70617282 -3.0685422 -0.49871314 7 3
0.99203914 -4.3141656 0.54353732 50 11
0.66767353 -2.9058912 -0.36609554 3 4
0.992185 -4.3182507 0.70176506 79 12
0.3811745 -1.6602995 -0.14903632 11 5
0.98415881 -4.2901816 0.8555876 11 13
0.3645685 -1.5905133 -0.085516959 1 6
0.98453265 -4.2986956 1.0181284 23 14
0.38036025 -1.6607403 -0.029738901 3 7
0.97611856 -4.265379 1.1724503 7 15
0.42190287 -1.8555127 -0.50987357 8 0
0.39193907 -1.7237332 0.030855855 38 8
0.48613995 -2.1397521 -0.50658977 6 1
0.38997608 -1.7178742 0.092320636 7 9
0.57282543 -2.5253808 -0.50335413 5 2
0.87990677 -3.8823302 0.34827435 7 10
0.69250041 -3.055455 -0.49621019 7 3
0.97860414 -4.3213038 0.54402483 50 11
0.65715724 -2.904217 -0.36560807 3 4
0.97710592 -4.3216877 0.70176506 78 12
0.37493756 -1.6596766 -0.148862 12 5
0.97425306 -4.3125715 0.85940373 16 13
0.35929209 -1.5917135 -0.085516959 1 6
0.97327346 -4.3152447 1.0212778 33 14
0.37719876 -1.6737624 -0.02994833 2 7
0.96122402 -4.2687597 1.1724503 10 15
0.4165915 -1.860672 -0.51090884 8 0
0.3802444 -1.6997219 0.030402092 9 8
0.47484162 -2.12432 -0.50254071 6 1
0.38035598 -1.7016156 0.091378585 9 9
0.56273633 -2.5196028 -0.50182766 5 2
0.86659354 -3.8832822 0.34810004 14 10
0.68097037 -3.0539975 -0.49558446 5 3
0.96092427 -4.3130679 0.54256237 50 11
0.65478009 -2.9413712 -0.36999539 1 4
0.96362764 -4.3287611 0.70239085 78 12
0.37029696 -1.6648005 -0.14921063 12 5
0.95536005 -4.2986975 0.85596919 23 13
0.95693856 -4.3129077 1.0199281 49 14
0.3729457 -1.6808608 -0.030053046 5 7
0.94748098 -4.2738099 1.1729679 9 15
0.40884748 -1.8564548 -0.5093559 8 0
0.37331548 -1.6951146 0.030297378 9 8
0.46905103 -2.1315925 -0.50389034 7 1
0.37527186 -1.7068342 0.091587931 8 9
0.55730778 -2.5368917 -0.50488061 3 2
0.85388732 -3.8901756 0.34844866 15 10
0.38242936 -1.7422878 -0.28252068 1 3
0.94619095 -4.314292 0.54231864 52 11
0.37732536 -1.7219048 -0.21643998 2 4
0.94766587 -4.328239 0.70176506 78 12
0.36576098 -1.671922 -0.14973356 12 5
0.94277841 -4.3095136 0.85749573 31 13
0.34844929 -1.5941224 -0.085516959 1 6
0.94179934 -4.3122497 1.0190283 62 14
0.36494458 -1.6723837 -0.029878521 10 7
0.93337977 -4.2808661 1.1740032 6 15
0.40359139 -1.8635349 -0.51090884 8 0
0.36710006 -1.6964716 0.030297378 19 8
0.45752907 -2.1161547 -0.49984124 7 1
0.37070039 -1.7160071 0.092006624 7 9
0.37433815 -1.7328466 -0.34460106 1 2
0.8407231 -3.8950799 0.34862295 25 10
0.36563006 -1.6954031 -0.27469894 4 3
0.93120813 -4.3216119 0.54280609 52 11
0.3647446 -1.6941665 -0.21278389 9 4
0.92930311 -4.320096 0.69988787 78 12
0.36369342 -1.6907191 -0.15130237 13 5
0.92615169 -4.3091011 0.85673243 38 13
0.92312604 -4.3023353 1.0158789 59 14
0.36384237 -1.6971732 -0.030297378 55 7
0.92253935 -4.3069267 1.180215 9 15
0.38903788 -1.8271425 -0.50055605 8 0
0.36034399 -1.6938308 0.030227568 14 8
0.36424407 -1.7136339 -0.40446201 4 1
0.36553809 -1.721198 0.092215963 7 9
0.36135381 -1.7014955 -0.33811355 6 2
0.82670838 -3.8960419 0.34844866 29 10
0.36257759 -1.7101961 -0.27688903 10 3
0.91488296 -4.3190103 0.54207492 50 11
0.35677364 -1.6857191 -0.2115652 13 4
0.91340059 -4.319448 0.69926214 78 12
0.35407987 -1.6744348 -0.14973356 23 5
0.91191608 -4.3161497 0.85749573 37 13
0.33703309 -1.596575 -0.085516959 1 6
0.90850496 -4.3074374 1.0163288 55 14
0.3546173 -1.6827792 -0.030018138 23 7
0.91147935 -4.3290248 1.1853913 85 15
0.35733169 -1.7074724 -0.46742722 6 0
0.35361061 -1.6911635 0.030157758 12 8
0.35746327 -1.7110796 -0.40356219 6 1
0.3611601 -1.7302839 0.092634656 7 9
0.35501111 -1.7008246 -0.33773196 9 2
0.80903554 -3.8793998 0.34670553 24 10
0.35338226 -1.6959803 -0.27438608 16 3
0.89980167 -4.3221774 0.54207492 46 11
0.35209972 -1.6927848 -0.21229641 28 4
0.89912152 -4.326478 0.69988787 81 12
0.34863839 -1.6776111 -0.14990787 24 5
0.89365125 -4.3039284 0.85444272 37 13
0.33145809 -1.5977417 -0.085516959 1 6
0.89544117 -4.3201241 1.0185784 59 14
0.35157973 -1.6977139 -0.030262474 17 7
0.88814306 -4.2924523 1.1745209 34 15
0.34786728 -1.691679 -0.46276847 8 0
0.3493149 -1.7002227 0.030297378 11 8
0.34678611 -1.6894099 -0.39816338 10 1
0.35712436 -1.7413167 0.093158014 6 9
0.35143849 -1.7135929 -0.34002164 18 2
0.79708904 -3.8900075 0.34740278 27 10
0.34785596 -1.699139 -0.27469894 23 3
0.88152647 -4.3097334 0.54012495 48 11
0.34539387 -1.6901137 -0.21180893 26 4
0.88401324 -4.3295903 0.69988787 79 12
0.34596869 -1.6944349 -0.15130237 20 5
0.87862211 -4.3070216 0.85444272 38 13
0.32587907 -1.5988889 -0.085516959 1 6
0.87646705 -4.3041277 1.0140793 61 14
0.34724608 -1.706769 -0.030402092 16 7
0.8773877 -4.3163509 1.180215 38 15
0.34119502 -1.6890957 -0.46173319 11 0
0.34496042 -1.7092724 0.030436996 11 8
0.34050161 -1.6886998 -0.39771348 13 1
0.75770235 -3.7611728 0.20107476 18 9
0.34506702 -1.7128847 -0.33964002 13 2
0.78389907 -3.8947194 0.3475771 21 10
0.34192291 -1.7003428 -0.27469894 15 3
0.86569506 -4.3088913 0.53963745 50 11
0.33831993 -1.6854702 -0.21107772 21 4
0.86734152 -4.324903 0.69863641 78 12
0.34005207 -1.6956322 -0.15130237 20 5
0.86358285 -4.3100624 0.85444272 38 13
0.33754539 -1.6861867 -0.090122528 1 6
0.86143792 -4.3071613 1.0140793 59 14
0.34207004 -1.7118925 -0.0304719 16 7
0.86080194 -4.3118095 1.1781443 46 15
0.33604887 -1.6940664 -0.46276847 9 0
0.3397691 -1.7143893 0.030506806 11 8
0.33725461 -1.7032593 -0.40086278 10 1
0.7426312 -3.7539985 0.20055141 27 9
0.33641902 -1.7005972 -0.33696869 11 2
0.76875335 -3.8896136 0.34687987 16 10
0.33675084 -1.705402 -0.2753247 13 3
0.85064888 -4.3118873 0.53963745 48 11
0.33588949 -1.7041696 -0.21327138 19 4
0.85071272 -4.3201513 0.69738495 79 12
0.33528593 -1.7026736 -0.15182531 19 5
0.84777451 -4.3091974 0.85367942 40 13
0.33589479 -1.7089119 -0.091273919 9 6
0.84639776 -4.310142 1.0140793 61 14
0.33455217 -1.705227 -0.030332282 17 7
0.84537452 -4.3128924 1.1776267 47 15
0.33124119 -1.7009177 -0.46432137 9 0
0.73745394 -3.7903383 0.067401193 16 8
0.33279416 -1.712078 -0.4026624 9 1
0.73142642 -3.766371 0.20107476 36 9
0.3312293 -1.7056156 -0.33773196 11 2
0.75593072 -3.8961852 0.34722847 18 10
0.33229938 -1.7143241 -0.27657616 13 3
0.83559227 -4.3148303 0.53963745 50 11
0.32993895 -1.7053316 -0.21327138 17 4
0.83562726 -4.3230948 0.69738495 81 12
0.3293404 -1.7038336 -0.15182531 18 5
0.83272737 -4.3121309 0.85367942 40 13
0.33181927 -1.7198794 -0.091797277 18 6
0.83097833 -4.3111558 1.0136294 67 14
0.3285979 -1.7063844 -0.030332282 11 7
0.82301444 -4.2778754 1.167274 20 15
0.3245765 -1.6982685 -0.4632861 9 0
0.72159368 -3.77914 0.067156859 34 8
0.32754633 -1.7170577 -0.40356219 9 1
0.72051823 -3.7806726 0.20170279 39 9
0.32674369 -1.7144756 -0.33925843 10 2
0.74232531 -3.8988001 0.34722847 18 10
0.32446775 -1.7057707 -0.27501184 14 3
0.82126731 -4.3216214 0.54012495 40 11
0.32546505 -1.714274 -0.21424633 16 4
0.81979591 -4.3221035 0.69675916 79 12
0.32450488 -1.710845 -0.15234824 10 5
0.81474638 -4.2995796 0.85062653 41 13
0.32321316 -1.7072905 -0.091064572 3 6
0.81302726 -4.2987123 1.0100303 17 14
0.72510391 -3.8375013 -0.068169102 17 7
0.80736053 -4.2769256 1.1662387 4 15
0.32042676 -1.708885 -0.46587428 9 0
0.70950156 -3.7875323 0.067261577 42 8
0.32083371 -1.7143596 -0.4026624 9 1
0.70584846 -3.7753117 0.20128411 39 9
0.32183939 -1.721395 -0.34040326 9 2
0.73017502 -3.9092019 0.34792572 19 10
0.31887382 -1.7088348 -0.2753247 10 3
0.80326653 -4.3088503 0.53817511 48 11
0.32275039 -1.7329634 -0.21643998 9 4
0.80542654 -4.3288231 0.69738495 81 12
0.79973239 -4.3023977 0.85062653 41 13
0.53422278 -2.8768022 -0.15334436 3 6
0.79517311 -4.2861953 1.006431 13 14
0.71498334 -3.8577051 -0.068483248 21 7
0.79559225 -4.296814 1.1708974 6 15
0.31690526 -1.7232931 -0.46949777 9 0
0.69772202 -3.797853 0.067401193 43 8
0.31555101 -1.7193025 -0.40356219 9 1
0.6908648 -3.7679303 0.20076075 38 9
0.3183071 -1.7360256 -0.34307459 7 2
0.71760225 -3.9176061 0.34844866 9 10
0.31539592 -1.7235392 -0.27751476 3 3
0.78822082 -4.3116279 0.53817511 40 11
0.33809781 -1.8512471 -0.2310643 1 4
0.78818375 -4.3199482 0.69550771 81 12
0.52890843 -2.8988888 -0.25780669 3 5
0.78435785 -4.3032322 0.85024494 38 13
0.52131486 -2.8629301 -0.15250699 3 6
0.78264856 -4.3023667 1.0095804 30 14
0.70294356 -3.868047 -0.068622865 21 7
0.31705782 -1.7586104 -0.47881526 8 0
0.68446016 -3.8002656 0.067401193 43 8
0.36855859 -2.0483618 -0.48049545 5 1
0.67806172 -3.7722845 0.20086543 38 9
0.3198866 -1.7796363 -0.3514702 7 2
0.77892751 -4.3377852 0.38557699 33 10
0.54969472 -3.0642803 -0.49308151 6 3
0.77316606 -4.314353 0.53817511 46 11
0.49605113 -2.770808 -0.3456215 3 4
0.7724039 -4.3187842 0.69488198 81 12
0.51457697 -2.8771822 -0.25571495 3 5
0.76829642 -4.3001456 0.84910011 38 13
0.51272219 -2.8725972 -0.15292569 3 6
0.76933593 -4.3146644 1.0118299 58 14
0.68803406 -3.8626027 -0.068483248 21 7
0.76659083 -4.3079696 1.1724503 9 15
0.32637897 -1.8472161 -0.5026266 9 0
0.67153859 -3.8046007 0.067436099 45 8
0.37561876 -2.1302392 -0.49939132 6 1
0.66696858 -3.7864301 0.20149344 38 9
0.44615746 -2.5328689 -0.49991959 5 2
0.76205498 -4.3306661 0.38470542 38 10
0.53865331 -3.0642345 -0.49276862 7 3
0.75741404 -4.3131146 0.5376876 50 11
0.48637646 -2.7725224 -0.3456215 4 4
0.75664175 -4.3175631 0.69425625 81 12
0.48699051 -2.7788742 -0.24682505 5 5
0.75328088 -4.3028011 0.84910011 38 13
0.50269175 -2.8743694 -0.15292569 4 6
0.75292861 -4.3096447 1.0100303 62 14
0.67592233 -3.87286 -0.068622865 18 7
0.75055301 -4.3049097 1.1708974 27 15
0.32190582 -1.8597654 -0.50573242 8 0
0.65825427 -3.8069215 0.067436099 45 8
0.36983895 -2.141139 -0.50164086 7 1
0.65610832 -3.7984617 0.20201682 38 9
0.43664566 -2.5305414 -0.49915636 6 2
0.7472719 -4.3352637 0.38487977 40 10
0.52627766 -3.0563624 -0.49120426 7 3
0.74504632 -4.3313832 0.53963745 48 11
0.47736752 -2.7781162 -0.34610897 6 4
0.74298882 -4.3239417 0.69488198 81 12
0.47492823 -2.7668114 -0.24560487 5 5
0.73659801 -4.2957292 0.84719193 40 13
0.49332958 -2.8800437 -0.15313502 4 6
0.66476202 -3.8849354 -0.068797387 16 7
0.73041469 -4.2730989 1.16158 41 15
0.31605792 -1.8646872 -0.50676769 9 0
0.6449579 -3.8051403 0.067366287 41 8
0.36110994 -2.1327467 -0.49939132 7 1
0.64384431 -3.8066368 0.20233083 38 9
0.42911825 -2.5397933 -0.50068283 5 2
0.73213428 -4.3378458 0.38487977 40 10
0.47800431 -2.8321431 -0.4549115 3 3
0.72572833 -4.3044682 0.53598142 52 11
0.46848255 -2.7816412 -0.34635273 6 4
0.72789139 -4.326509 0.69488198 102 12
0.46559751 -2.7704172 -0.24577919 4 5
0.72137243 -4.2923398 0.8460471 38 13
0.48410687 -2.8836336 -0.1532397 4 6
0.7200315 -4.2935295 1.0050814 6 14
0.65384054 -3.9030101 -0.069076627 11 7
0.72123289 -4.3099189 1.1708974 46 15
0.31050566 -1.8695365 -0.50780302 8 0
0.63363481 -3.819205 0.067575715 43 8
0.35366324 -2.1339943 -0.49939132 6 1
0.62859589 -3.7970381 0.20170279 39 9
0.42069352 -2.5412023 -0.50068283 5 2
0.71807033 -4.3422151 0.38505405 40 10
0.4587791 -2.7772741 -0.44583827 4 3
0.71199113 -4.3148098 0.53695637 43 11
0.4581238 -2.7793422 -0.34586522 5 4
0.71406823 -4.3368201 0.69613349 78 12
0.45770261 -2.7798097 -0.24647643 4 5
0.70702219 -4.2987065 0.84681034 38 13
0.47306708 -2.8793936 -0.15292569 3 6
0.64280039 -3.9210556 -0.069355868 8 7
0.70556003 -4.3085966 1.169862 45 15
0.30366793 -1.8687021 -0.50728536 8 0
0.62094057 -3.825341 0.067645527 39 8
0.34745964 -2.1429102 -0.50119096 7 1
0.61565715 -3.8011811 0.20180747 37 9
0.40993714 -2.5310276 -0.49839315 5 2
0.7019546 -4.3387947 0.38453114 40 10
0.45097226 -2.7905593 -0.44771552 6 3
0.69565982 -4.3094301 0.53598142 50 11
0.44810361 -2.778965 -0.3456215 6 4
0.6951558 -4.3158832 0.692379 81 12
0.44609541 -2.7695885 -0.24543057 6 5
0.69201243 -4.3011479 0.84681034 41 13
0.4630135 -2.8810272 -0.15292569 3 6
0.69189268 -4.3099957 1.0077807 52 14
0.64050734 -3.9943562 -0.070612431 6 7
0.69020981 -4.3091259 1.1693444 47 15
0.29562703 -1.8602111 -0.50469714 9 0
0.6078977 -3.8294604 0.067680433 37 8
0.33997732 -2.14411 -0.50119096 6 1
0.68687469 -4.3318624 0.22985955 36 9
0.40048537 -2.5285647 -0.49762988 5 2
0.68275821 -4.3156362 0.38226506 37 10
0.4415372 -2.7940674 -0.44802836 2 3
0.68061322 -4.311832 0.53598142 50 11
0.44025508 -2.7922773 -0.3470839 5 4
0.68022466 -4.3142624 0.69175333 79 12
0.43611532 -2.7691603 -0.24525626 4 5
0.67760503 -4.3074164 0.84757364 38 13
0.45233351 -2.8786798 -0.15271634 3 6
0.67714584 -4.3143101 1.0082307 39 14
0.65981454 -4.203887 -0.074277438 8 7
0.67322439 -4.2942142 1.1646857 36 15
0.29002166 -1.8669587 -0.50625008 9 0
0.59580916 -3.835407 0.067750245 41 8
0.33286524 -2.1452258 -0.50119096 6 1
0.67419702 -4.3500233 0.2306969 40 9
0.39345896 -2.5415883 -0.49991959 6 2
0.66403538 -4.2943649 0.38017333 25 10
0.43106177 -2.7877078 -0.4467769 3 3
0.66782576 -4.3238745 0.53720009 39 11
0.43220401 -2.8015697 -0.34805888 6 4
0.6657629 -4.3205147 0.692379 79 12
0.42584026 -2.7667274 -0.24490763 4 5
0.66122657 -4.2960563 0.84490222 31 13
0.44278523 -2.8801639 -0.15271634 3 6
0.65150309 -4.2476726 -0.075010449 8 7
0.65530455 -4.2774425 1.1595093 14 15
0.28411913 -1.86982 -0.50676769 8 0
0.58241737 -3.8374634 0.067750245 37 8
0.3239148 -2.1367409 -0.49894145 6 1
0.65840989 -4.3484006 0.23048759 38 9
0.38561597 -2.5467613 -0.50068283 6 2
0.65545171 -4.3339729 0.38348526 31 10
0.41867301 -2.7716162 -0.44396105 4 3
0.64947075 -4.3045878 0.53451896 42 11
0.42508429 -2.8207273 -0.35025251 4 4
0.65038389 -4.320859 0.69206619 76 12
0.41558746 -2.7642567 -0.24455902 3 5
0.64768577 -4.3080459 0.84681034 35 13
0.43183899 -2.8757665 -0.15240233 4 6
0.64400643 -4.293766 1.0023819 17 14
0.63726437 -4.2538762 -0.075080253 9 7
0.6438005 -4.3026309 1.1657211 36 15
0.27698079 -1.8689378 -0.50625008 8 0
0.63966948 -4.3161926 0.076162301 43 8
0.31730995 -2.1436419 -0.50029117 6 1
0.64176697 -4.3407931 0.22996421 36 9
0.37455854 -2.5365045 -0.49839315 5 2
0.56223351 -3.812043 0.33711842 19 10
0.40879956 -2.7750864 -0.44427395 10 3
0.63530922 -4.3127203 0.53525019 46 11
0.4143689 -2.8163021 -0.34952128 6 4
0.63587105 -4.3270121 0.69269186 71 12
0.40767175 -2.777518 -0.24560487 3 5
0.63075304 -4.3026209 0.84528393 38 13
0.42187452 -2.8812823 -0.15261166 4 6
0.63108438 -4.3153796 1.006881 52 14
0.61980736 -4.2382669 -0.074766114 9 7
0.62821907 -4.3010287 1.1646857 23 15
0.27128509 -1.8756292 -0.50780302 8 0
0.62870574 -4.3521538 0.076755688 41 8
0.3091729 -2.1428616 -0.49984124 6 1
0.62556797 -4.3411398 0.22985955 37 9
0.36514208 -2.53391 -0.49762988 6 2
0.54977536 -3.8198984 0.33764133 42 10
0.39854798 -2.7725859 -0.44364822 9 3
0.61865127 -4.3091249 0.53451896 52 11
0.40432557 -2.819767 -0.34976503 6 4
0.61720753 -4.3097587 0.68956316 76 12
0.39712685 -2.7730072 -0.24508193 2 5
0.61628556 -4.3086829 0.8460471 35 13
0.41322696 -2.8926232 -0.15313502 4 6
0.61519116 -4.3117685 1.0055312 54 14
0.60257655 -4.2286325 -0.074556686 9 7
0.61136192 -4.2956519 1.1626152 12 15
0.26284689 -1.8631743 -0.50417954 8 0
0.61295253 -4.3503618 0.076685868 41 8
0.30250561 -2.1497171 -0.50119096 6 1
0.61013269 -4.3413196 0.22975488 36 9
0.35629478 -2.5351691 -0.49762988 5 2
0.55499363 -3.9539883 0.34932023 11 10
0.3883189 -2.7700477 -0.44302243 9 3
0.60388136 -4.3132238 0.53476268 48 11
0.39475513 -2.8231273 -0.35000879 6 4
0.60461867 -4.3294945 0.692379 81 12
0.38772032 -2.7763498 -0.24525626 3 5
0.60124207 -4.3108082 0.8460471 37 13
0.40257579 -2.8900921 -0.15292569 4 6
0.60013646 -4.3138895 1.0055312 58 14
0.58588618 -4.216845 -0.074312352 8 7
0.59583241 -4.2939329 1.16158 38 15
0.256605 -1.8659943 -0.50469714 8 0
0.59531385 -4.3346453 0.076371737 36 8
0.29447043 -2.1468985 -0.50029117 6 1
0.59578842 -4.3493586 0.23006889 36 9
0.34744346 -2.5363972 -0.49762988 5 2
0.55090964 -4.0269661 0.35559544 20 10
0.37918198 -2.7753007 -0.44364822 7 3
0.58828545 -4.3113718 0.53427523 48 11
0.38409397 -2.8185871 -0.34927759 6 4
0.58763748 -4.3178778 0.69018894 76 12
0.37748924 -2.7737381 -0.24490763 3 5
0.58407611 -4.297318 0.84299421 36 13
0.39221662 -2.8895004 -0.152821 24 6
0.58533669 -4.3178892 1.0059811 65 14
0.569821 -4.2089562 -0.074137822 8 7
0.58239359 -4.3074732 1.1646857 46 15
0.25111583 -1.8745377 -0.50676769 9 0
0.58097535 -4.3426428 0.076476447 41 8
0.28516799 -2.1343923 -0.49714181 6 1
0.58007377 -4.3474526 0.22985955 36 9
0.3396259 -2.5453789 -0.49915636 5 2
0.522376 -3.920243 0.3460083 7 10
0.36975291 -2.7785654 -0.44396105 4 3
0.57140118 -4.2996249 0.53256911 42 11
0.37477553 -2.8238463 -0.34976503 7 4
0.57256156 -4.3199024 0.69018894 73 12
0.36780471 -2.775039 -0.24490763 3 5
0.57010186 -4.3071156 0.84452063 40 13
0.38160443 -2.8868918 -0.15261166 7 6
0.56949562 -4.3141103 1.0046314 56 14
0.55329645 -4.197042 -0.073893487 6 7
0.56634539 -4.3018184 1.1626152 38 15
0.24589878 -1.8830224 -0.50883824 9 0
0.5665713 -4.3445454 0.076476447 41 8
0.27859175 -2.1391909 -0.4980416 5 1
0.56512374 -4.3393512 0.2293362 36 9
0.33067709 -2.5425975 -0.49839315 5 2
0.49679905 -3.8251395 0.33746704 19 10
0.36180711 -2.7895713 -0.44552541 4 3
0.5579052 -4.3074021 0.53330034 39 11
0.36464524 -2.8191676 -0.34903383 7 4
0.56000125 -4.3295159 0.6914404 76 12
0.35987639 -2.7861233 -0.24577919 4 5
0.55430871 -4.2972999 0.84223092 41 13
0.3704983 -2.876256 -0.15198363 4 6
0.5522027 -4.2927818 0.99923265 56 14
0.53755683 -4.178926 -0.073544443 8 7
0.553074 -4.3054929 1.1631329 39 15
0.23762026 -1.8704542 -0.50521481 9 0
0.55190945 -4.3444161 0.076441541 39 8
0.27125135 -2.1381698 -0.49759173 6 1
0.5497219 -4.3393154 0.22923151 36 9
0.31982848 -2.5281544 -0.4953402 5 2
0.48469266 -3.8367336 0.33833858 22 10
0.35156447 -2.7829165 -0.44427395 3 3
0.54411501 -4.3131666 0.53378779 39 11
0.35405385 -2.8105137 -0.34781513 7 4
0.54241884 -4.3118458 0.6883117 71 12
0.34990072 -2.7853854 -0.24560487 4 5
0.54103452 -4.3069062 0.84375745 42 13
0.36195254 -2.8853958 -0.15240233 4 6
0.53869081 -4.3003902 1.0005823 52 14
0.52197397 -4.1728401 -0.073404826 8 7
0.53732371 -4.3016462 1.16158 38 15
0.23046781 -1.8635629 -0.50314426 9 0
0.53674114 -4.3463163 0.076441541 39 8
0.26593232 -2.1565104 -0.50164086 7 1
0.53506017 -4.3451724 0.22944085 36 9
0.31004342 -2.5214608 -0.49381369 5 2
0.47075105 -3.8284326 0.33746704 64 10
0.34329218 -2.7958908 -0.44615117 3 3
0.52857322 -4.3111 0.53330034 39 11
0.3449648 -2.8176436 -0.34854636 8 4
0.52784419 -4.3176336 0.68893749 73 12
0.33921 -2.7786791 -0.24490763 4 5
0.52524519 -4.3088608 0.84375745 38 13
0.35282248 -2.8985984 -0.15303035 4 6
0.52414763 -4.3061132 1.0014821 52 14
0.50330311 -4.1408906 -0.072811447 8 7
0.52044219 -4.2881532 1.1574388 38 15
0.22294569 -1.8586408 -0.50159132 9 0
0.51914275 -4.3343563 0.076197207 37 8
0.25594404 -2.1400561 -0.49759173 7 1
0.51913065 -4.3471045 0.22944085 36 9
0.30219445 -2.5342772 -0.49610341 5 2
0.33117396 -2.7814379 -0.44364822 4 3
0.51276809 -4.3130078 0.53330034 40 11
0.33603969 -2.8307166 -0.35000879 7 4
0.51201564 -4.3195395 0.68893749 76 12
0.32949167 -2.7838609 -0.24525626 3 5
0.5066843 -4.2873602 0.83917803 38 13
0.34079185 -2.8879714 -0.15240233 4 6
0.5074479 -4.3002639 0.99968249 52 14
0.48765448 -4.1387353 -0.072741628 8 7
0.50585043 -4.2996254 1.160027 39 15
0.21680127 -1.8652023 -0.50314426 9 0
0.50325298 -4.3362298 0.076197207 37 8
0.24720126 -2.1332366 -0.49579209 6 1
0.50326335 -4.3429384 0.22912684 36 9
0.29424852 -2.5431175 -0.49762988 5 2
0.44953424 -3.8911572 0.34269637 12 10
0.31984574 -2.7728212 -0.44208387 4 3
0.49672943 -4.3128862 0.53305656 42 11
0.32547477 -2.8259561 -0.34927759 6 4
0.49670929 -4.3193383 0.68862462 78 12
0.31863606 -2.7750974 -0.24438471 3 5
0.49350381 -4.3047066 0.84223092 35 13
0.33434296 -2.9208922 -0.15407708 17 6
0.49442846 -4.3194342 1.0037316 55 14
0.47365919 -4.1443858 -0.072811447 8 7
0.49018213 -4.2956071 1.1584741 36 15
0.21169816 -1.8755091 -0.50573242 9 0
0.48931846 -4.3418493 0.076267019 41 8
0.24056159 -2.1379178 -0.49669194 6 1
0.48818874 -4.3386288 0.22881283 30 9
0.28537548 -2.5401771 -0.49686664 5 2
0.43907106 -3.9144063 0.34461379 9 10
0.31086871 -2.7758298 -0.4423967 5 3
0.4819839 -4.3105645 0.53256911 42 11
0.31521964 -2.8191285 -0.3483026 6 4
0.48216379 -4.3189983 0.6883117 76 12
0.30943164 -2.7761385 -0.24438471 2 5
0.47857457 -4.3004656 0.84108603 38 13
0.32575813 -2.9319103 -0.15460044 8 6
0.47773519 -4.2997446 0.99878263 50 14
0.45814931 -4.1300335 -0.072532199 8 7
0.47678515 -4.3048892 1.1605446 38 15
0.20505689 -1.8723602 -0.50469714 9 0
0.23347084 -2.1387038 -0.49669194 6 1
0.27567402 -2.5293994 -0.49457693 5 2
0.42457923 -3.9019761 0.34339362 10 10
0.3025156 -2.7847006 -0.44364822 5 3
0.46854287 -4.3200331 0.53354406 42 11
0.30601817 -2.8261325 -0.34903383 7 4
0.46602303 -4.3108358 0.68674743 79 12
0.29936728 -2.7692261 -0.24368747 2 5
0.4647328 -4.305933 0.84184933 38 13
0.31902921 -2.9607749 -0.15606584 13 6
0.46355653 -4.3091369 1.0005823 52 14
0.40785566 -3.7975798 -0.06666819 2 7
0.46278554 -4.3161311 1.1631329 39 15
0.19790901 -1.8673013 -0.50314426 9 0
0.39873365 -3.7683866 0.066144623 4 8
0.22661777 -2.1453195 -0.4980416 7 1
0.39860979 -3.779824 0.19919068 3 9
0.26766691 -2.538156 -0.49610341 5 2
0.40928769 -3.8875825 0.34199914 9 10
0.29196697 -2.7778816 -0.4423967 5 3
0.45428929 -4.3295393 0.53451896 44 11
0.29615149 -2.8271835 -0.34903383 4 4
0.45076698 -4.3104715 0.68643451 76 12
0.29011342 -2.7742176 -0.24403608 2 5
0.45031089 -4.3133869 0.84299421 37 13
0.30807137 -2.9559107 -0.15575182 25 6
0.44750398 -4.3010368 0.9983328 55 14
0.39170471 -3.7711344 -0.066179529 5 7
0.44532496 -4.2946615 1.1569211 37 15
0.19217727 -1.875668 -0.50521481 9 0
0.38394964 -3.7538409 0.065865383 7 8
0.21932597 -2.148036 -0.49849153 7 1
0.38561574 -3.7831795 0.19929534 4 9
0.25761089 -2.5273559 -0.49381369 5 2
0.39551318 -3.8870053 0.34182483 6 10
0.28147036 -2.7710226 -0.44114524 5 3
0.43877298 -4.3271484 0.53403151 44 11
0.28408149 -2.8064749 -0.34635273 7 4
0.43611544 -4.315949 0.68706024 71 12
0.2791439 -2.7673326 -0.24333882 3 5
0.43328163 -4.2953987 0.83917803 38 13
0.29775101 -2.9569683 -0.15575182 7 6
0.43326783 -4.3103285 1.0001323 55 14
0.37833884 -3.7704887 -0.066144623 7 7
0.43090916 -4.3019571 1.1584741 38 15
0.18530127 -1.8763597 -0.50521481 9 0
0.21029735 -2.1332738 -0.4948923 7 1
0.42736891 -4.3430347 0.22870816 26 9
0.24988125 -2.5439141 -0.49686664 5 2
0.39662334 -4.0450768 0.35559544 10 10
0.27304387 -2.7897294 -0.44396105 4 3
0.42269877 -4.3187752 0.53281283 46 11
0.27409056 -2.8054738 -0.34610897 4 4
0.42143071 -4.3213778 0.68768603 73 12
0.27025449 -2.7762225 -0.24403608 6 5
0.41829473 -4.3047743 0.84070444 36 13
0.3048431 -3.1429174 -0.16548631 3 6
0.41765404 -4.313828 1.0005823 52 14
0.38733596 -4.0006809 -0.070158668 8 7
0.41589031 -4.3034353 1.1584741 38 15
0.17838429 -1.8731488 -0.50417954 9 0
0.41157585 -4.3298206 0.075917974 14 8
0.20302902 -2.1398504 -0.49624202 6 1
0.40617588 -4.2888975 0.22577733 3 9
0.23951924 -2.5291345 -0.49381369 5 2
0.40762585 -4.3122315 0.37895316 29 10
0.26478863 -2.8063986 -0.446464 4 3
0.40686724 -4.3202953 0.53281283 50 11
0.26101941 -2.776814 -0.34245288 3 4
0.40558916 -4.3228931 0.68768603 69 12
0.26149252 -2.7870672 -0.24490763 5 5
0.40253285 -4.2983894 0.83917803 37 13
0.28569213 -3.0564642 -0.16088074 9 6
0.40078357 -4.295856 0.9960832 50 14
0.39658773 -4.2589235 -0.074661396 11 7
0.40011454 -4.3049302 1.1584741 38 15
0.17184465 -1.87376 -0.50417954 9 0
0.39263192 -4.2894115 0.075184964 6 8
0.1960904 -2.146368 -0.49759173 6 1
0.39047629 -4.2823334 0.22535865 6 9
0.23033255 -2.5260453 -0.49305046 5 2
0.39491874 -4.3394227 0.38121921 40 10
0.25552717 -2.8132079 -0.44740263 5 3
0.3925004 -4.329597 0.53378779 48 11
0.25132486 -2.7777083 -0.34245288 3 4
0.38943088 -4.3124785 0.68580878 69 12
0.25104541 -2.7800257 -0.24421038 4 5
0.3878791 -4.303679 0.83994126 36 13
0.29649326 -3.2961502 -0.17344138 3 6
0.38595989 -4.2991695 0.99653322 55 14
0.38528842 -4.3001165 -0.075359493 8 7
0.38542905 -4.3101487 1.1595093 38 15
0.16411491 -1.8608779 -0.50055605 9 0
0.37765658 -4.2907562 0.075184964 18 8
0.18859692 -2.1470394 -0.49759173 6 1
0.37814248 -4.3135147 0.22692874 11 9
0.22151384 -2.5268338 -0.49305046 5 2
0.37959519 -4.3387899 0.38104489 46 10
0.24948569 -2.8573759 -0.45428574 6 3
0.37772995 -4.3348966 0.53427523 46 11
0.24162723 -2.7785685 -0.34245288 3 4
0.37471661 -4.3177471 0.68643451 71 12
0.24133968 -2.780885 -0.24421038 3 5
0.37319326 -4.3089185 0.84070444 35 13
0.29599297 -3.424515 -0.18014038 1 6
0.37078306 -4.2985492 0.9960832 52 14
0.36856252 -4.2902956 1.1538154 39 15
0.15810739 -1.8672142 -0.50210893 9 0
0.36688596 -4.3418632 0.076057591 40 8
0.18077366 -2.1438012 -0.49669194 6 1
0.366768 -4.358593 0.22923151 38 9
0.21302165 -2.5315042 -0.49381369 5 2
0.36311382 -4.3242059 0.37965041 40 10
0.25452062 -3.0373614 -0.48275682 7 3
0.36193374 -4.3282762 0.53330034 46 11
0.23275237 -2.7892861 -0.34367159 4 4
0.35964298 -4.3190289 0.68643451 69 12
0.23311937 -2.7995801 -0.24577919 7 5
0.35749915 -4.3023691 0.83917803 36 13
0.35979208 -4.3391337 -0.22818479 23 6
0.35625854 -4.3056431 0.99743295 56 14
0.35822037 -4.3385735 -0.075987779 38 7
0.35453603 -4.3031082 1.1569211 37 15
0.15190092 -1.8716059 -0.50314426 9 0
0.35140532 -4.3391309 0.075987779 39 8
0.17266162 -2.1366494 -0.4948923 6 1
0.35134694 -4.3478408 0.22860347 30 9
0.20449896 -2.5361462 -0.49457693 5 2
0.34865633 -4.3333907 0.38034767 42 10
0.24486507 -3.0500453 -0.48463401 7 3
0.34618935 -4.3215976 0.53232533 48 11
0.22350137 -2.7900426 -0.34367159 7 4
0.34563321 -4.3241358 0.68706024 66 12
0.22461273 -2.8162656 -0.24717368 6 5
0.34185636 -4.2957625 0.83765155 37 13
0.34464338 -4.340363 -0.22818479 36 6
0.34244117 -4.3126292 0.99878263 52 14
0.34367311 -4.3377442 -0.075952873 46 7
0.33996031 -4.3004084 1.1558858 37 15
0.14524409 -1.8663212 -0.50159132 9 0
0.33654976 -4.334291 0.075883061 42 8
0.16542469 -2.1352673 -0.49444243 6 1
0.33569276 -4.3330517 0.22776611 32 9
0.19578499 -2.5328956 -0.49381369 5 2
0.33474433 -4.3404822 0.38087061 41 10
0.23550704 -3.0606883 -0.48619837 6 3
0.33185634 -4.322722 0.53232533 48 11
0.21333621 -2.7788928 -0.34220913 7 4
0.33099058 -4.3213191 0.68643451 71 12
0.22134487 -2.8964586 -0.25414613 4 5
0.328206 -4.3047028 0.83917803 37 13
0.33100557 -4.35144 -0.22870816 47 6
0.3271032 -4.300139 0.99563336 56 14
0.3300437 -4.3488297 -0.076127395 42 7
0.32555175 -4.2995858 1.1553683 38 15
0.13919777 -1.8687191 -0.50210893 9 0
0.3221747 -4.3353834 0.075883061 35 8
0.15877537 -2.1416342 -0.49579209 6 1
0.32100737 -4.3401728 0.22808012 35 9
0.18666068 -2.5237415 -0.4919056 5 2
0.31990892 -4.3356075 0.38034767 42 10
0.22535603 -3.0614524 -0.48619837 7 3
0.31795636 -4.3297377 0.53305656 52 11
0.20319992 -2.7736812 -0.34147793 5 4
0.31503978 -4.3106275 0.68455732 69 12
0.21536915 -2.9468539 -0.25850391 7 5
0.31421468 -4.3096838 0.83994126 36 13
0.31671908 -4.3545055 -0.22881283 43 6
0.31209081 -4.3012543 0.99563336 55 14
0.31399515 -4.3379889 -0.075917974 42 7
0.31109831 -4.308403 1.1574388 38 15
0.13212694 -1.8614855 -0.50003839 9 0
0.30689862 -4.334487 0.075848162 37 8
0.15129839 -2.1421754 -0.49579209 6 1
0.30613595 -4.3452511 0.22828946 35 9
0.17812592 -2.5282943 -0.49266884 5 2
0.30435374 -4.3307352 0.37982473 41 10
0.21397777 -3.0523677 -0.48463401 7 3
0.30311766 -4.3347826 0.53354406 50 11
0.19766048 -2.833782 -0.34879011 3 4
0.29999137 -4.3117008 0.68455732 69 12
0.20881547 -3.0012527 -0.26321036 2 5
0.29889765 -4.3068371 0.83917803 37 13
0.30179235 -4.35957 -0.22902218 43 6
0.29734364 -4.3062057 0.99653322 55 14
0.29940084 -4.3470383 -0.076057591 42 7
0.29499745 -4.294045 1.1532978 38 15
0.12614849 -1.8696452 -0.50210893 9 0
0.29136312 -4.3295465 0.075743444 39 8
0.14434211 -2.1504681 -0.49759173 6 1
0.29096621 -4.346293 0.22828946 36 9
0.16943051 -2.5308597 -0.49305046 5 2
0.28936738 -4.3337593 0.37999901 42 10
0.20292823 -3.047183 -0.48369545 6 3
0.28798449 -4.335814 0.53354406 52 11
0.25704852 -3.8802915 -0.47748414 6 4
0.28519922 -4.3166637 0.68518305 69 12
0.19807588 -3.0059741 -0.26355895 2 5
0.2828294 -4.2921824 0.83612514 38 13
0.28618023 -4.3546176 -0.22870816 42 6
0.28218228 -4.3052731 0.9960832 59 14
0.2842249 -4.3480568 -0.076057591 44 7
0.28013271 -4.2969761 1.1538154 39 15
0.11929501 -1.870095 -0.50210893 9 0
0.27599418 -4.3265457 0.07567364 36 8
0.13547346 -2.129566 -0.49264279 6 1
0.2760464 -4.3512692 0.2284988 35 9
0.15990564 -2.527545 -0.49228725 5 2
0.27398315 -4.3427444 0.38069627 42 10
0.19200601 -3.0518491 -0.48432118 7 3
0.27247381 -4.3308487 0.53281283 53 11
0.24350259 -3.8811648 -0.47748414 6 4
0.26988271 -4.3136902 0.68455732 73 12
0.18758178 -3.0066471 -0.26355895 2 5
0.26746202 -4.2990685 0.8372699 40 13
0.26984677 -4.3496571 -0.22839414 43 6
0.26628086 -4.3043332 0.99563336 55 14
0.26916897 -4.3510184 -0.076092489 42 7
0.26525006 -4.2998557 1.154333 38 15
0.1129989 -1.8743569 -0.50314426 9 0
0.26025468 -4.3295245 0.075708538 37 8
0.12778412 -2.1319935 -0.49309272 6 1
0.25989985 -4.3362575 0.22766145 35 9
0.15131576 -2.5320075 -0.49305046 5 2
0.25870436 -4.3416853 0.38052195 46 10
0.18123505 -3.050529 -0.48400828 7 3
0.25659856 -4.3318186 0.53281283 53 11
0.22857346 -3.8701413 -0.47602168 6 4
0.25482386 -4.3146057 0.68455732 76 12
0.17755423 -3.0152395 -0.26425621 2 5
0.25256827 -4.3019361 0.83765155 38 13
0.25489527 -4.3545599 -0.22860347 43 6
0.25057298 -4.2935638 0.99293393 56 14
0.25397933 -4.3519316 -0.076092489 42 7
0.25035176 -4.3026838 1.1548507 37 15
0.10667446 -1.8785973 -0.50417954 9 0
0.24623595 -4.3363533 0.075813256 39 8
0.12082377 -2.1343508 -0.49354258 6 1
0.24498685 -4.341126 0.22787078 36 9
0.14181504 -2.5207589 -0.49076074 5 2
0.24321267 -4.3365946 0.37999901 42 10
0.17100739 -3.0491412 -0.48369545 7 3
0.24212191 -4.3306642 0.53256911 66 11
0.21584867 -3.8728602 -0.47626543 6 4
0.23932257 -4.3075795 0.6833058 73 12
0.16658686 -3.0078833 -0.26355895 2 5
0.23862666 -4.30863 0.83879644 38 13
0.24045399 -4.3553815 -0.22860347 43 6
0.23622639 -4.2924256 0.99248403 59 14
0.23758169 -4.3308282 -0.075708538 44 7
0.23522598 -4.3016024 1.154333 38 15
0.09951625 -1.8615788 -0.49952078 9 0
0.23077895 -4.3311958 0.075708538 39 8
0.1138892 -2.1444895 -0.49579209 6 1
0.23037782 -4.3379259 0.22766145 36 9
0.13345502 -2.5212154 -0.49076074 5 2
0.22841115 -4.3294187 0.37930179 42 10
0.16025905 -3.0477467 -0.48338255 7 3
0.22689956 -4.3294997 0.53232533 76 11
0.20274308 -3.8815193 -0.47724038 5 4
0.22514072 -4.3103223 0.68361872 78 12
0.1555759 -2.9885225 -0.26181585 2 5
0.2235857 -4.3094373 0.83879644 38 13
0.2253519 -4.3581886 -0.22870816 42 6
0.22154285 -4.2990627 0.99383378 56 14
0.22342499 -4.3355856 -0.075778343 44 7
0.22066264 -4.2965713 1.1527801 37 15
0.093210258 -1.8657738 -0.50055605 9 0
0.21611542 -4.3259454 0.075603828 37 8
0.10600196 -2.1292851 -0.49219292 6 1
0.2157294 -4.3486772 0.22818479 36 9
0.12484764 -2.5255878 -0.49152401 5 2
0.21310058 -4.3262095 0.37895316 40 10
0.15024856 -3.0502343 -0.48369545 7 3
0.21263885 -4.332212 0.53256911 83 11
0.18967628 -3.8782051 -0.47675291 6 4
0.21047749 -4.3189745 0.68487018 78 12
0.14263052 -2.9373062 -0.25728375 2 5
0.2084367 -4.2925062 0.83536184 38 13
0.21060917 -4.3529272 -0.22839414 41 6
0.20756678 -4.305613 0.99518347 59 14
0.20886514 -4.3483233 -0.075987779 44 7
0.20566332 -4.2973151 1.1527801 40 15
0.086371191 -1.8661028 -0.50055605 9 0
0.19922706 -4.3207507 0.07549911 36 8
0.097646721 -2.1257827 -0.49129307 6 1
0.19969755 -4.3474436 0.22808012 36 9
0.11576951 -2.5299509 -0.49228725 5 2
0.19751543 -4.3329325 0.3794761 41 10
0.13835616 -3.0468421 -0.48306966 6 3
0.19537488 -4.3191152 0.53086293 76 11
0.17496192 -3.8828709 -0.47724038 5 4
0.19446832 -4.3157697 0.68424439 79 12
0.13633066 -3.0373282 -0.26599932 1 5
0.1923044 -4.3011203 0.83688831 41 13
0.19336045 -4.3417325 -0.22776611 43 6
0.19094653 -4.3044319 0.99473363 55 14
0.19292626 -4.3490596 -0.075987779 44 7
0.19008198 -4.3018999 1.1538154 39 15
0.080269836 -1.8760434 -0.50314426 9 0
0.18506919 -4.3253837 0.075568922 36 8
0.090762682 -2.1299891 -0.49219292 6 1
0.1840127 -4.3361411 0.22745208 36 9
0.10693725 -2.5303395 -0.49228725 6 2
0.18264067 -4.3395677 0.37999901 42 10
0.1281689 -3.0453107 -0.48275682 7 3
0.18105094 -4.3197389 0.53086293 76 11
0.16125692 -3.863596 -0.474803 5 4
0.17948471 -4.3183961 0.68455732 76 12
0.1781282 -4.3038616 -0.37686142 1 5
0.17795898 -4.2997727 0.83650672 40 13
0.17904374 -4.3443451 -0.22787078 42 6
0.17643161 -4.2992001 0.99338388 59 14
0.17774443 -4.3497066 -0.075987779 44 7
0.17490719 -4.2986765 1.1527801 40 15
0.073819593 -1.8705082 -0.50159132 8 0
0.17036153 -4.3359938 0.075743444 37 8
0.083784275 -2.1419764 -0.4948923 6 1
0.16963287 -4.3367276 0.22745208 36 9
0.097935118 -2.514986 -0.4892343 5 2
0.16801745 -4.3341765 0.3794761 41 10
0.11761409 -3.0477133 -0.48306966 6 3
0.16627581 -4.328279 0.53183788 80 11
0.14807327 -3.8720701 -0.47577798 5 4
0.16486129 -4.3110719 0.6833058 76 12
0.16476439 -4.32832 -0.37895316 1 5
0.16309692 -4.3042912 0.8372699 40 13
0.16433011 -4.3569188 -0.2284988 42 6
0.161497 -4.3017368 0.99383378 55 14
0.16271898 -4.3342862 -0.075708538 44 7
0.16079541 -4.3030944 1.1538154 40 15
0.067081466 -1.8649627 -0.50003839 9 0
0.15583852 -4.3325381 0.07567364 37 8
0.076471552 -2.1363997 -0.49354258 7 1
0.15470701 -4.3432817 0.22776611 36 9
0.089433379 -2.5231605 -0.49076074 6 2
0.15232591 -4.3188076 0.37808162 40 10
0.10743748 -3.0461123 -0.48275682 7 3
0.15226977 -4.3387256 0.53305656 52 11
0.13481639 -3.8606365 -0.47431552 5 4
0.14981224 -4.3116212 0.6833058 73 12
0.14882857 -4.3049741 -0.37686142 1 5
0.14868717 -4.3008847 0.83650672 40 13
0.14981233 -4.3554435 -0.22839414 43 6
0.14716423 -4.3003011 0.99338388 59 14
0.14786057 -4.3428221 -0.075848162 42 7
0.14538182 -4.2920446 1.1507095 42 15
0.060770512 -1.8613132 -0.49900314 9 0
0.14038955 -4.3230619 0.07549911 36 8
0.068887524 -2.1327584 -0.49264279 6 1
0.13948095 -4.3417988 0.22766145 36 9
0.08106599 -2.5234432 -0.49076074 5 2
0.1384486 -4.3332286 0.37930179 40 10
0.096552506 -3.0385714 -0.48150533 7 3
0.13712426 -4.3392305 0.53305656 52 11
0.1217139 -3.8729882 -0.47577798 5 4
0.13476032 -4.3121176 0.6833058 76 12
0.13529858 -4.3293409 -0.37895316 1 5
0.13288049 -4.2758675 0.83154565 42 13
0.1344851 -4.3519473 -0.22818479 41 6
0.13005754 -4.2326145 0.97763729 105 14
0.13270026 -4.3433118 -0.075848162 44 7
0.13063394 -4.3002501 1.1527801 39 15
0.054498091 -1.8692381 -0.50107372 9 0
0.12529878 -4.3235259 0.07549911 36 8
0.061330363 -2.1290901 -0.491743 6 1
0.12443857 -4.346252 0.22787078 36 9
0.07225696 -2.5237107 -0.49076074 6 2
0.12320848 -4.3297019 0.37895316 43 10
0.086001456 -3.0408645 -0.4818182 6 3
0.12153036 -4.3238087 0.53110665 52 11
0.10797162 -3.8654523 -0.474803 5 4
0.11987223 -4.3184853 0.68424439 79 12
0.12007537 -4.3258042 -0.37860456 1 5
0.11665533 -4.2292047 0.82238686 57 13
0.11918306 -4.3483973 -0.22797546 43 6
0.11544172 -4.2388873 0.97898698 107 14
0.11764654 -4.3477464 -0.075917974 44 7
0.11551801 -4.2968178 1.1517448 33 15
0.048072185 -1.8732793 -0.50210893 9 0
0.1102564 -4.3259363 0.075534016 37 8
0.053799648 -2.1253951 -0.49084321 6 1
0.10906568 -4.3386736 0.22745208 36 9
0.063447058 -2.5239477 -0.49076074 6 2
0.10814386 -4.332098 0.3791275 40 10
0.075484149 -3.0450957 -0.48244393 6 3
0.10653429 -4.3281755 0.5315941 52 11
0.09409038 -3.8499296 -0.47285309 5 4
0.10474914 -4.3169031 0.68393159 76 12
0.10469946 -4.3461332 -0.38034767 1 5
0.10203365 -4.2354741 0.82353163 63 13
0.10400399 -4.3487868 -0.22797546 43 6
0.10055141 -4.2353678 0.97808713 105 14
0.10246924 -4.3481307 -0.075917974 42 7
0.10083523 -4.3107138 1.1553683 36 15
0.041078482 -1.867649 -0.50055605 9 0
0.09528771 -4.3322921 0.075638726 39 8
0.046550039 -2.1333628 -0.49264279 6 1
0.093963832 -4.3410244 0.22755675 36 9
0.053943302 -2.5123866 -0.48847106 5 2
0.092349961 -4.3364487 0.3794761 41 10
0.064239331 -3.0414021 -0.4818182 6 3
0.091509208 -4.3324904 0.5320816 52 11
0.080817685 -3.8581734 -0.47382805 5 4
0.089515477 -4.3093429 0.68268013 73 12
0.089774042 -4.3584237 -0.38139355 1 5
0.086429447 -4.231894 0.82276845 61 13
0.088064119 -4.3491392 -0.22797546 43 6
0.085027769 -4.2357082 0.97808713 110 14
0.087130651 -4.3404641 -0.075778343 44 7
0.085633054 -4.3033137 1.1532978 38 15
0.034451652 -1.8619864 -0.49900314 9 0
0.079371706 -4.3306131 0.075603828 37 8
0.038801517 -2.1374159 -0.49354258 6 1
0.078882642 -4.3453197 0.22776611 36 9
0.04517274 -2.5125597 -0.48847106 5 2
0.077035435 -4.3267846 0.37860456 42 10
0.053762022 -3.0495079 -0.48306966 6 3
0.075733081 -4.3387508 0.53281283 53 11
0.06674476 -3.8624132 -0.47431552 5 4
0.074472912 -4.309629 0.68268013 73 12
0.073674157 -4.3069162 -0.37686142 1 5
0.071822397 -4.2419848 0.82467651 65 13
0.07301598 -4.3574076 -0.22839414 43 6
0.070435613 -4.2476697 0.98078656 110 14
0.072045267 -4.3447409 -0.075848162 42 7
0.070516475 -4.297792 1.1517448 39 15
0.027951844 -1.8620952 -0.49900314 9 0
0.064800173 -4.3168564 0.075359493 34 8
0.031684391 -2.1355844 -0.49309272 6 1
0.063743323 -4.3475657 0.22787078 36 9
0.036459103 -2.5166283 -0.4892343 5 2
0.061931543 -4.3270273 0.37860456 42 10
0.043422915 -3.0338681 -0.48056671 6 3
0.061317135 -4.3369937 0.53256911 47 11
0.05393602 -3.8626132 -0.47431552 5 4
0.05948288 -4.3138127 0.6833058 71 12
0.057514384 -4.2245321 0.82124197 61 13
0.058485731 -4.351635 -0.22808012 42 6
0.056478523 -4.2576227 0.98303616 111 14
0.056878727 -4.3449659 -0.075848162 44 7
0.055239893 -4.276763 1.1460507 45 15
0.021822091 -1.8660412 -0.50003839 9 0
0.049777601 -4.3210554 0.075429298 35 8
0.024074806 -2.1220417 -0.48994341 6 1
0.0486116 -4.3517561 0.22808012 36 9
0.028157225 -2.5206614 -0.48999751 5 2
0.047670241 -4.3351774 0.37930179 42 10
0.032746889 -3.0261002 -0.47931525 6 3
0.04609317 -4.3292408 0.5315941 52 11
0.040410519 -3.858808 -0.47382805 5 4
0.044506263 -4.3218951 0.68455732 73 12
0.043604419 -4.3073254 -0.37686142 1 5
0.04282767 -4.2305965 0.82238686 57 13
0.043254949 -4.3478179 -0.22787078 45 6
0.041597642 -4.2558455 0.98258615 110 14
0.041712016 -4.3451381 -0.075848162 44 7
0.040200997 -4.2653394 1.1429449 45 15
0.015013325 -1.8699721 -0.50107372 9 0
0.034725469 -4.3252015 0.07549911 36 8
0.016698156 -2.1260102 -0.49084321 7 1
0.03331387 -4.3379192 0.22734742 36 9
0.018888839 -2.5168214 -0.4892343 5 2
0.031780627 -4.3353233 0.37930179 42 10
0.021655766 -3.0261998 -0.47931525 6 3
0.031009823 -4.3333454 0.5320816 52 11
0.026802283 -3.8390751 -0.47139066 5 4
0.029392747 -4.3180737 0.68393159 73 12
0.028568663 -4.3074512 -0.37686142 1 5
0.027384788 -4.240541 0.82429492 53 13
0.027332103 -4.3499446 -0.22797546 43 6
0.02599833 -4.255969 0.98258615 110 14
0.026568193 -4.349257 -0.075917974 42 7
0.02555307 -4.3060217 1.1538154 39 15
0.0084684519 -1.8661495 -0.50003839 9 0
0.018890472 -4.3292994 0.075568922 36 8
0.008922115 -2.1299546 -0.491743 6 1
0.017422318 -4.3400092 0.22745208 36 9
0.010087844 -2.5129454 -0.48847106 5 2
0.016646693 -4.3354077 0.37930179 40 10
0.011135221 -3.0381091 -0.48119247 6 3
0.015127035 -4.3334303 0.5320816 50 11
0.01275087 -3.8451028 -0.47212186 5 4
0.01354112 -4.3102508 0.68268013 73 12
0.013657741 -4.3473725 -0.38034767 1 5
0.012617707 -4.2523904 0.82658464 52 13
0.012147675 -4.3500137 -0.22797546 43 6
0.011142453 -4.2560344 0.98258615 107 14
0.010598316 -4.337327 -0.075708538 45 7
0.009770466 -4.3060865 1.1538154 39 15
0.0019463993 -1.8584404 -0.49796787 9 0
0.0037746707 -4.3253398 0.07549911 35 8
0.0014870728 -2.1299727 -0.491743 6 1
0.0022742064 -4.3440385 0.22766145 36 9
0.0013114853 -2.5051124 -0.48694456 5 2
0.0015121987 -4.3314543 0.37895316 43 10
0.00052976119 -3.0341787 -0.48056671 6 3
-1.8959496e-07 -4.3374271 0.53256911 50 11
-0.00067111629 -3.8471091 -0.47236562 5 4
-0.0015041527 -4.3102717 0.68268013 104 12
-0.0015032014 -4.3075457 -0.37686142 1 5
-0.0022296917 -4.2582984 0.82772946 55 13
-0.0030424783 -4.3580184 -0.22839414 43 6
-0.0037305609 -4.2755346 0.98708516 107 14
-0.0045503424 -4.345336 -0.075848162 44 7
-0.00525604 -4.3022304 1.1527801 39 15
-0.0045504938 -1.8622994 -0.49900314 9 0
-0.011318492 -4.3233271 0.075464211 37 8
-0.0059368508 -2.1260674 -0.49084321 6 1
-0.012135864 -4.3460193 0.22776611 36 9
-0.0074327677 -2.5051017 -0.48694456 6 2
-0.013620049 -4.3354182 0.37930179 42 10
-0.010022284 -3.0223098 -0.47868952 6 3
-0.015140239 -4.3374009 0.53256911 49 11
